ply
format ascii 1.0
comment VCGLIB generated
element vertex 1447
property float x
property float y
property float z
element face 0
property list uchar int vertex_indices
end_header
-0.00261718 0.0372583 -0.00198313 
-0.00853175 0.0353354 -0.00198731 
-0.0148957 0.0327376 -0.0019922 
-0.0238391 0.0261375 -0.00200125 
0.0389701 -0.00917519 -0.00599613 
0.0410867 0.00215735 -0.00596781 
0.0402039 0.00841819 -0.00595494 
0.0383456 0.0130266 -0.00594711 
0.0362381 0.017203 -0.0059406 
0.0339092 0.0209981 -0.00593526 
0.0315467 0.0247243 -0.00593014 
0.0292706 0.0285788 -0.00592464 
0.0262692 0.0312387 -0.00592281 
0.0229951 0.0334518 -0.00592237 
0.0195836 0.0354421 -0.00592263 
0.0158476 0.0369111 -0.00592452 
0.0118268 0.0379284 -0.00592782 
0.00740434 0.0383129 -0.00593311 
0.00273608 0.03832 -0.00593959 
-0.00245868 0.0375093 -0.00594864 
-0.00792422 0.036294 -0.00595897 
-0.0142125 0.0338112 -0.00597329 
-0.0223779 0.0284252 -0.00599667 
0.0406956 -0.006277 -0.00997887 
0.0408447 0.00175249 -0.00994845 
0.0404614 0.00884725 -0.00992275 
0.0389775 0.0140756 -0.00990654 
0.037039 0.0185271 -0.00989428 
0.0345472 0.0220488 -0.00988678 
0.0320893 0.0256144 -0.00987906 
0.0297196 0.0293123 -0.00987068 
0.0265736 0.031734 -0.00986885 
0.0233487 0.0340251 -0.00986771 
0.0198764 0.0359149 -0.00986866 
0.0161242 0.037356 -0.00987195 
0.0120619 0.0383051 -0.00987781 
0.00767584 0.0387463 -0.00988632 
0.00292975 0.0386279 -0.00989777 
-0.00218016 0.0379504 -0.00991216 
-0.00767812 0.0366822 -0.00992966 
-0.0140051 0.0341372 -0.00995383 
-0.0217584 0.0293951 -0.00998946 
0.0405847 -0.00646318 -0.0139718 
0.0410561 0.00210606 -0.0139254 
0.0408439 0.00948473 -0.0138874 
0.039494 0.0149329 -0.0138631 
0.0373122 0.0189788 -0.0138489 
0.0348639 0.0225702 -0.0138378 
0.032442 0.0261929 -0.0138266 
0.0297574 0.029374 -0.0138186 
0.0268352 0.0321599 -0.0138134 
0.0234783 0.0342352 -0.0138134 
0.0199969 0.0361096 -0.0138148 
0.016123 0.037354 -0.0138208 
0.0120424 0.0382738 -0.0138292 
0.00756816 0.0385744 -0.0138422 
0.00291001 0.0385965 -0.0138572 
-0.0024743 0.0374845 -0.0138805 
-0.00790715 0.0363209 -0.0139042 
-0.0139833 0.0341715 -0.0139352 
-0.0214054 0.0299477 -0.0139813 
0.0404394 -0.00670732 -0.0179662 
0.0408816 0.00181407 -0.0179069 
0.0408255 0.00945411 -0.0178557 
0.0393519 0.014697 -0.0178263 
0.0373693 0.0190733 -0.0178049 
0.0348674 0.0225761 -0.0177916 
0.0323178 0.0259892 -0.0177791 
0.029576 0.0290778 -0.0177696 
0.0266521 0.0318618 -0.017763 
0.0232859 0.0339233 -0.0177631 
0.0197301 0.0356786 -0.017766 
0.0160398 0.0372202 -0.017771 
0.0119524 0.0381296 -0.0177819 
0.00733311 0.0381993 -0.0178007 
0.00272713 0.0383057 -0.0178192 
-0.0028465 0.0368951 -0.0178519 
-0.00816801 0.0359093 -0.0178808 
-0.0143338 0.0336206 -0.017922 
-0.0215118 0.0297811 -0.0179777 
0.0400071 -0.00743348 -0.021967 
0.0406669 0.00145491 -0.0218905 
0.0405834 0.00905057 -0.0218283 
0.0391313 0.0143309 -0.0217921 
0.0371172 0.0186565 -0.0217665 
0.0345704 0.022087 -0.021751 
0.0319062 0.025314 -0.0217378 
0.0292261 0.0285061 -0.0217251 
0.0263656 0.0313955 -0.0217158 
0.0229828 0.0334319 -0.0217162 
0.0194534 0.0352318 -0.0217193 
0.0158251 0.0368749 -0.0217243 
0.0116149 0.0375888 -0.0217398 
0.00707962 0.0377946 -0.0217612 
0.0020979 0.0373053 -0.0217906 
-0.00333454 0.0361221 -0.021828 
-0.00872643 0.0350283 -0.0218646 
-0.0149971 0.0325781 -0.0219167 
-0.022795 0.0277723 -0.0219958 
0.0301752 -0.0239479 -0.0261793 
0.0397293 -0.000113757 -0.0258916 
0.0395963 0.0074057 -0.0258192 
0.0383154 0.0129766 -0.0257725 
0.0362131 0.0171617 -0.0257442 
0.0339008 0.0209842 -0.0257207 
0.0312103 0.0241725 -0.0257057 
0.0284808 0.0272882 -0.0256916 
0.0257062 0.0303223 -0.0256787 
0.0223878 0.0324673 -0.0256778 
0.0188995 0.0343374 -0.0256805 
0.0153892 0.0361736 -0.0256838 
0.0112643 0.037027 -0.0257003 
0.00633342 0.0366036 -0.0257341 
0.0015 0.0363546 -0.0257656 
-0.00402602 0.0350269 -0.0258118 
-0.00963836 0.0335895 -0.0258596 
-0.0160816 0.0308736 -0.0259248 
0.0157462 -0.0323386 -0.0303986 
0.0100264 -0.033979 -0.0304555 
0.00560196 -0.0334481 -0.0304795 
0.000965807 -0.0332537 -0.0305088 
-0.00358922 -0.0329111 -0.030536 
0.0273963 0.0255162 -0.0296718 
0.0246852 0.0286605 -0.0296553 
0.0215469 0.0311041 -0.0296496 
0.0181003 0.0330468 -0.0296517 
0.0144908 0.0347284 -0.0296579 
0.010174 0.0352801 -0.0296816 
0.005469 0.0352239 -0.0297149 
0.000507955 0.0347773 -0.0297544 
-0.00504501 0.033413 -0.0298082 
-0.0109982 0.031444 -0.0298717 
-0.0180555 0.0277715 -0.0299618 
0.00846245 0.0325375 -0.0336877 
0.00386142 0.0326579 -0.0337223 
-0.0014398 0.0316804 -0.0337764 
-0.00724881 0.0299225 -0.0338444 
-0.0141319 0.0264999 -0.033942 
-0.00954417 -0.0187947 0.0180003 
-0.00365095 -0.0206671 0.0179632 
0.00215824 -0.0224359 0.0179272 
0.00672297 -0.0222331 0.0179096 
0.0109346 -0.0214749 0.0178972 
0.0146411 -0.0199084 0.0178924 
0.0180477 -0.0178578 0.0178921 
0.0209953 -0.0150574 0.0178987 
0.0233968 -0.0113555 0.0179137 
0.0258004 -0.00764444 0.0179288 
0.027621 -0.00295631 0.0179529 
0.0285701 0.00319922 0.0179904 
-0.0130383 -0.0207529 0.0140013 
-0.00533136 -0.0254929 0.0139517 
0.000119266 -0.0266849 0.0139279 
0.00470565 -0.0265177 0.0139139 
0.00888832 -0.0257163 0.0139045 
0.01322 -0.0251656 0.0138934 
0.0165614 -0.0230215 0.0138939 
0.0202629 -0.0214631 0.0138901 
0.0231582 -0.0185915 0.0138958 
0.026033 -0.0156798 0.0139018 
0.0283336 -0.0118161 0.0139147 
0.0303826 -0.00752197 0.0139306 
0.0322081 -0.00283938 0.0139494 
0.0321285 0.00503889 0.0139909 
-0.0184508 -0.0196858 0.0100175 
-0.00944086 -0.0264507 0.0099715 
-0.00298054 -0.0292307 0.00994621 
0.00173742 -0.0292677 0.00993513 
0.00634028 -0.029137 0.00992496 
0.00996916 -0.0274549 0.00992282 
0.0137951 -0.0260943 0.00991906 
0.0176484 -0.0247839 0.00991509 
0.0213816 -0.0232839 0.00991212 
0.0248732 -0.0213937 0.00991119 
0.0276344 -0.0183068 0.0099164 
0.030319 -0.0150857 0.00992232 
0.0326048 -0.011196 0.00993167 
0.0344617 -0.00658009 0.00994472 
0.0354319 -0.00046597 0.0099654 
0.0324894 0.0122262 0.0100195 
-0.0144377 -0.0260175 0.00599083 
-0.00716587 -0.0300539 0.00597172 
-0.00212788 -0.0305864 0.00596351 
0.00178316 -0.0293407 0.00596083 
0.00614122 -0.028818 0.00595594 
0.0101363 -0.0277238 0.00595284 
0.0144172 -0.027099 0.00594832 
0.0184964 -0.0261586 0.0059448 
0.0222482 -0.0246942 0.00594292 
0.0258951 -0.0230634 0.00594156 
0.0288078 -0.0202315 0.00594392 
0.0315291 -0.0170784 0.00594726 
0.0339825 -0.0134738 0.00595201 
0.035823 -0.00883962 0.0059599 
0.0370425 -0.00314989 0.00597102 
0.0370472 0.00460096 0.00598843 
-0.0198198 -0.0249985 0.00200021 
-0.0110756 -0.0313219 0.00199146 
-0.0054607 -0.0327546 0.00198778 
-0.00133153 -0.0318526 0.00198653 
0.00289347 -0.0311129 0.00198511 
0.00741946 -0.0308662 0.0019832 
0.0116041 -0.030085 0.00198185 
0.0154924 -0.0288353 0.00198099 
0.019521 -0.0278196 0.00197989 
0.0231252 -0.0261216 0.00197951 
0.0268193 -0.0245734 0.00197897 
0.0297283 -0.0217415 0.00197976 
0.0323752 -0.0184718 0.001981 
0.034518 -0.0143591 0.0019831 
0.0367328 -0.0103496 0.00198509 
0.0382803 -0.00521264 0.00198824 
0.0386473 0.00192391 0.00199342 
0.0343553 0.0169267 0.00200658 
-0.0172892 -0.0289758 -0.00199609 
-0.0101142 -0.0328388 -0.00198989 
-0.00397938 -0.0351007 -0.00198536 
7.53722e-05 -0.0340895 -0.00198422 
0.00442442 -0.0335566 -0.0019826 
0.0091716 -0.0336738 -0.00198031 
0.013425 -0.0330141 -0.00197884 
0.0171905 -0.0315775 -0.00197817 
0.0206052 -0.0295773 -0.00197809 
0.0242005 -0.0278717 -0.00197771 
0.0275627 -0.0257882 -0.00197773 
0.0304756 -0.0229673 -0.00197851 
0.0330926 -0.0196533 -0.00197979 
0.0354036 -0.0158234 -0.0019816 
0.0374803 -0.0115904 -0.00198383 
0.0390527 -0.00649988 -0.00198693 
0.0396889 0.000181207 -0.00199164 
0.0381573 0.0105405 -0.00200009 
-0.0280151 -0.0195994 -0.00602408 
-0.0166094 -0.0300442 -0.00598498 
-0.00966026 -0.033555 -0.00596746 
-0.00345438 -0.0359323 -0.00595352 
0.00120205 -0.0358809 -0.00594713 
0.00570881 -0.0356066 -0.00594147 
0.0104242 -0.0356808 -0.00593476 
0.0144291 -0.0346291 -0.00593155 
0.018006 -0.0328945 -0.00593047 
0.0214619 -0.0309663 -0.00593001 
0.024617 -0.0285497 -0.00593107 
0.0279825 -0.0264741 -0.0059311 
0.0311753 -0.0241152 -0.00593201 
0.0339714 -0.0211006 -0.00593495 
0.0360387 -0.0168734 -0.0059416 
0.0378966 -0.0122814 -0.00594938 
0.0394894 -0.00722756 -0.00595857 
0.0404759 -0.00113543 -0.00597093 
0.0407489 0.00618747 -0.00598703 
-0.0264845 -0.0219958 -0.0100278 
-0.0162341 -0.0306341 -0.00997195 
-0.00936627 -0.0340188 -0.00994342 
-0.00339962 -0.036019 -0.00992212 
0.00152207 -0.0363897 -0.00990931 
0.00634764 -0.0366263 -0.00989724 
0.0109686 -0.0365533 -0.00988682 
0.0148681 -0.0353354 -0.00988233 
0.0183668 -0.0334771 -0.00988117 
0.0219703 -0.0317904 -0.00987917 
0.0252137 -0.0295209 -0.00988018 
0.028441 -0.0272232 -0.00988137 
0.0314239 -0.0245229 -0.00988464 
0.0343262 -0.0216847 -0.00988863 
0.0367021 -0.0179702 -0.00989712 
0.0382343 -0.012842 -0.00991282 
0.0400186 -0.00810942 -0.00992651 
0.0409531 -0.00193384 -0.00994753 
0.0408069 0.00608997 -0.00997792 
-0.0254679 -0.0235875 -0.0140274 
-0.0164761 -0.0302537 -0.0139636 
-0.00941526 -0.0339415 -0.0139214 
-0.00339499 -0.0360263 -0.013891 
0.00160168 -0.0365163 -0.0138722 
0.00626607 -0.0364961 -0.0138572 
0.0109505 -0.0365242 -0.0138418 
0.0149255 -0.0354277 -0.0138347 
0.0184886 -0.0336738 -0.0138323 
0.0219193 -0.0317078 -0.0138315 
0.0254215 -0.029859 -0.0138299 
0.0286004 -0.0274837 -0.0138321 
0.0316182 -0.0248416 -0.0138363 
0.0343522 -0.0217275 -0.0138439 
0.0365779 -0.0177649 -0.0138575 
0.0383409 -0.0130189 -0.0138768 
0.0401348 -0.008303 -0.0138958 
0.0409501 -0.00192868 -0.0139267 
0.0412938 0.00527222 -0.0139634 
-0.0248658 -0.02453 -0.0180266 
-0.0169447 -0.0295172 -0.0179602 
-0.00921726 -0.0342539 -0.0178962 
-0.00347231 -0.0359039 -0.0178611 
0.00156064 -0.036451 -0.0178364 
0.0062007 -0.0363918 -0.0178175 
0.0107727 -0.0362394 -0.0177994 
0.0149706 -0.0355003 -0.0177869 
0.0185059 -0.0337017 -0.0177843 
0.0218105 -0.0315314 -0.0177851 
0.0252166 -0.0295255 -0.0177845 
0.0286292 -0.0275307 -0.0177839 
0.0314291 -0.0245314 -0.0177925 
0.0342173 -0.0215055 -0.0178014 
0.0362579 -0.0172357 -0.0178218 
0.0383153 -0.0129763 -0.0178421 
0.0400512 -0.00816379 -0.0178675 
0.041141 -0.00224804 -0.0179029 
0.0411605 0.00549601 -0.0179551 
-0.0259888 -0.0227719 -0.0220528 
-0.0169887 -0.0294481 -0.0219523 
-0.00917718 -0.0343171 -0.0218727 
-0.0035713 -0.0357471 -0.0218323 
0.00153761 -0.0364144 -0.0218007 
0.00619148 -0.036377 -0.0217773 
0.0109403 -0.0365078 -0.021752 
0.0149476 -0.0354633 -0.0217402 
0.0185273 -0.0337362 -0.0217362 
0.0218152 -0.031539 -0.0217375 
0.0252193 -0.0295298 -0.0217368 
0.0283816 -0.0271261 -0.0217406 
0.0310927 -0.0239796 -0.0217528 
0.0337827 -0.0207898 -0.0217656 
0.036149 -0.0170557 -0.0217845 
0.0381203 -0.0126527 -0.0218109 
0.039888 -0.00789175 -0.0218413 
0.0406783 -0.00147408 -0.0218902 
0.0407822 0.00613159 -0.0219524 
-0.0180513 -0.0277781 -0.0259664 
-0.00975012 -0.0334132 -0.025862 
-0.00388108 -0.0352564 -0.0258087 
0.00118233 -0.0358495 -0.0257724 
0.00594992 -0.0359915 -0.0257423 
0.0107919 -0.0362701 -0.0257105 
0.0149748 -0.0355071 -0.0256927 
0.0184099 -0.0335467 -0.0256911 
0.0215563 -0.0311193 -0.0256957 
0.0249131 -0.0290316 -0.0256959 
0.027992 -0.0264895 -0.0257023 
0.0307151 -0.0233602 -0.0257164 
0.0333196 -0.0200271 -0.0257334 
0.0357732 -0.0164344 -0.0257538 
0.00842776 0.0366324 -0.0264296 
0.039305 -0.00692017 -0.0258256 
0.0196635 0.0336844 -0.0263353 
0.0393001 0.00862099 -0.025977 
-0.0197356 -0.0251308 -0.0300028 
-0.011467 -0.0307044 -0.0298831 
-0.00541014 -0.0328347 -0.0298172 
-1.31936e-05 -0.0339487 -0.0297672 
0.00482874 -0.0342019 -0.0297307 
0.00968693 -0.0344995 -0.0296936 
0.0140495 -0.0340185 -0.0296688 
0.0174112 -0.0319339 -0.0296688 
-0.0154877 0.0289364 -0.030573 
-0.0118359 0.0307791 -0.0305685 
-0.00793435 0.0322117 -0.0305578 
-0.00388206 0.0333915 -0.0305433 
0.000275941 0.0343897 -0.0305262 
0.00471424 0.0349158 -0.030502 
0.00955439 0.0347624 -0.0304675 
0.0146428 0.0341773 -0.0304266 
0.0213978 0.0307829 -0.0303431 
-0.0135507 0.025796 -0.0345953 
-0.0101677 0.0280641 -0.0345976 
-0.00618756 0.0293575 -0.0345831 
-0.00215369 0.0305563 -0.0345671 
0.00210472 0.0313781 -0.0345446 
-0.00200134 -0.0304541 0.00782907 
0.00200338 -0.0292531 0.00983052 
0.00601061 -0.0291607 0.00998468 
-0.0139704 -0.0303586 0.00023144 
-0.0099541 -0.0332767 -0.00461268 
-0.00596252 -0.0352325 -0.00785925 
-0.00198596 -0.0361414 -0.00936799 
0.00198547 -0.0364355 -0.00985622 
0.00595548 -0.0366203 -0.0101628 
0.00992547 -0.0366635 -0.0102342 
0.0139095 -0.035499 -0.00830075 
0.0180478 -0.0247221 0.0095878 
-0.0179304 -0.0290514 -0.00531989 
-0.0139105 -0.0320323 -0.0102488 
-0.00992182 -0.0337181 -0.0130363 
-0.00594476 -0.0353606 -0.0157521 
-0.00198021 -0.0361751 -0.0170989 
0.00197979 -0.0364252 -0.0175124 
0.00593937 -0.0364257 -0.0175131 
0.00990101 -0.0361866 -0.0171175 
0.0138649 -0.0359014 -0.0166456 
0.0178542 -0.0340709 -0.0136187 
0.0218633 -0.0318452 -0.00993822 
0.0259527 -0.0266485 -0.0013456 
-0.0219037 -0.0262798 -0.0084323 
-0.0178715 -0.0295504 -0.0138189 
-0.0138745 -0.0317141 -0.0173825 
-0.00989055 -0.0340618 -0.0212491 
-0.0059293 -0.0350549 -0.0228846 
-0.00197504 -0.03588 -0.0242436 
0.0019747 -0.0360856 -0.0245821 
0.00592372 -0.0361599 -0.0247044 
0.0098714 -0.0363402 -0.0250012 
0.0138253 -0.035897 -0.0242709 
0.0178015 -0.0341777 -0.0214391 
0.021805 -0.031614 -0.0172166 
0.0258135 -0.0296171 -0.0139276 
0.0299017 -0.0250003 -0.00632385 
-0.0258943 -0.0225339 -0.00993848 
-0.0218277 -0.0270107 -0.0172824 
-0.0178263 -0.029169 -0.0208233 
-0.0138388 -0.0313868 -0.0244616 
-0.00987157 -0.032961 -0.0270441 
-0.00591969 -0.0336023 -0.0280962 
-0.00197227 -0.0341703 -0.029028 
0.00197184 -0.034428 -0.0294508 
0.00591534 -0.0344667 -0.029514 
0.00985828 -0.0345468 -0.0296454 
0.0138038 -0.0343617 -0.0293414 
0.0177646 -0.0332595 -0.0275331 
0.021748 -0.0313358 -0.0243771 
0.0257476 -0.0292641 -0.0209783 
0.0297798 -0.0264588 -0.0163761 
0.033875 -0.0221046 -0.00923297 
-0.0299198 -0.0174952 -0.0093369 
-0.0258039 -0.0233027 -0.0188264 
-0.0217783 -0.0263249 -0.0237648 
-0.0177959 -0.0278225 -0.026212 
-0.0138207 -0.0295622 -0.0290548 
-0.0101226 0.000433029 0.0199552 
-0.00606841 -0.0005903 0.018283 
-0.00202179 -0.00119504 0.0172949 
0.00202039 -0.00203082 0.0159293 
0.00605801 -0.00266574 0.0148919 
0.0100951 -0.00285675 0.0145799 
0.0141383 -0.00242704 0.0152822 
0.0181966 -0.00118694 0.0173087 
0.0222562 -0.000336 0.0186994 
0.0256987 -0.0281445 -0.0267376 
0.0297194 -0.0254871 -0.0223952 
0.0337757 -0.0222109 -0.0170416 
-0.0298108 -0.018461 -0.0185295 
-0.0257599 -0.0219581 -0.0242214 
-0.0217498 -0.0245062 -0.0283688 
-0.0182499 0.00580631 0.0209661 
-0.0141939 0.00577271 0.0209113 
-0.0101279 0.00450718 0.0188514 
-0.00607208 0.00358363 0.0173483 
-0.00202411 0.00363866 0.0174378 
0.00202276 0.00282738 0.0161174 
0.00606339 0.00184707 0.0145219 
0.0100996 0.00111322 0.0133276 
0.0141434 0.00145046 0.0138766 
0.0182254 0.00416989 0.0183027 
0.0222882 0.00485487 0.0194177 
0.0263342 0.00454231 0.0189093 
0.0296734 -0.0239569 -0.0274743 
0.0337217 -0.0207343 -0.0222291 
0.0379059 -0.0139094 -0.011121 
-0.0297632 -0.0169885 -0.0237137 
-0.0257296 -0.019989 -0.0285781 
-0.0222793 0.00781211 0.0164928 
-0.0182633 0.0101495 0.0202821 
-0.0142096 0.0105712 0.0209658 
-0.0101441 0.0099056 0.0198867 
-0.0060816 0.00893629 0.0183152 
-0.00202633 0.0084161 0.0174718 
0.00202522 0.00775102 0.0163936 
0.00607151 0.00691231 0.0150339 
0.0101155 0.00646104 0.0143024 
0.0141861 0.00855865 0.017703 
0.0182519 0.00938839 0.0190482 
0.0223143 0.0097263 0.0195961 
0.0263578 0.00908329 0.0185537 
0.0303683 0.00727818 0.0156274 
0.0343341 0.00430961 0.0108148 
0.0377957 -0.014001 -0.0188702 
-0.0297371 -0.0146631 -0.0274965 
-0.0263043 0.010047 0.0124076 
-0.0222963 0.0121893 0.0158672 
-0.0182621 0.0135215 0.0180185 
-0.0142214 0.0150436 0.0204766 
-0.0101577 0.0149983 0.0204036 
-0.00609023 0.014121 0.0189868 
-0.00202958 0.0138266 0.0185115 
0.00202845 0.0131406 0.0174035 
0.00608143 0.0123514 0.0161292 
0.0101422 0.0131334 0.017392 
0.01421 0.014063 0.0188931 
0.0182782 0.0145993 0.019759 
0.0223347 0.0142958 0.0192689 
0.0263633 0.0127843 0.0168279 
0.0303786 0.011137 0.0141677 
0.0343436 0.00808419 0.00923768 
0.0377403 -0.0123784 -0.023807 
-0.0339121 -0.00383524 -0.0175892 
-0.0297411 -0.0111289 -0.0293215 
-0.0263061 0.0135735 0.010415 
-0.0223031 0.0160144 0.0143416 
-0.0182694 0.0174662 0.0166773 
-0.0142217 0.0185305 0.0183894 
-0.0101628 0.0190706 0.0192583 
-0.00609987 0.0195197 0.0199809 
-0.00203349 0.019643 0.0201792 
0.00203329 0.0195224 0.0199853 
0.00609947 0.0194378 0.019849 
0.0101659 0.01945 0.0198687 
0.0142328 0.0194876 0.0199291 
0.0182949 0.0191771 0.0194295 
0.0223439 0.0182573 0.0179497 
0.0263751 0.0167875 0.0155852 
0.0303837 0.0147893 0.0123705 
0.0343472 0.0116493 0.00731928 
0.0382633 0.00765545 0.000894452 
-0.0339064 -0.000642921 -0.0200099 
-0.0302577 0.0131381 0.00207272 
-0.0263054 0.0169851 0.00823735 
-0.0222998 0.0192839 0.0119212 
-0.018267 0.0207594 0.0142858 
-0.0142223 0.0220329 0.0163266 
-0.0101653 0.0228389 0.0176183 
-0.00610171 0.0233494 0.0184364 
-0.00203444 0.0236763 0.0189603 
0.00203477 0.0238791 0.0192852 
0.00610637 0.0242927 0.019948 
0.0101755 0.024066 0.0195845 
0.0142419 0.0237383 0.0190593 
0.0183016 0.0230924 0.0180241 
0.0223429 0.0216566 0.0157231 
0.0263668 0.0198498 0.0128277 
0.0303707 0.017709 0.00939696 
0.0343346 0.0146364 0.00447307 
0.0382445 0.0104819 -0.0021845 
-0.0339432 0.00406755 -0.020005 
-0.0302369 0.0157265 -0.00139498 
-0.0262835 0.0194022 0.00447252 
-0.0222846 0.0218899 0.00844387 
-0.0182637 0.0239908 0.0117975 
-0.0142178 0.0250974 0.0135642 
-0.0101643 0.0261748 0.0152841 
-0.0061009 0.0266462 0.0160367 
-0.00203411 0.0269382 0.0165028 
0.00203441 0.0271217 0.0167958 
0.00610424 0.0273227 0.0171164 
0.010174 0.0273513 0.0171619 
0.0142412 0.027135 0.0168166 
0.0182929 0.0259618 0.0149436 
0.0223346 0.0246555 0.0128581 
0.0263527 0.0226406 0.00964153 
0.0303537 0.0204625 0.00616436 
0.0343202 0.017556 0.00152462 
0.0382208 0.0131468 -0.00551396 
-0.0302092 0.018028 -0.0053085 
-0.0262647 0.0219609 0.000945356 
-0.0222729 0.0246866 0.00527975 
-0.01825 0.0265131 0.00818448 
-0.01421 0.0278788 0.0103563 
-0.0101578 0.0288359 0.0118783 
-0.00609729 0.0293718 0.0127307 
-0.0020332 0.0298473 0.0134868 
0.00203382 0.0302199 0.0140792 
0.00610163 0.0302544 0.0141339 
0.0101686 0.0301561 0.0139774 
0.0142321 0.0298038 0.013417 
0.0182855 0.0289195 0.0120106 
0.0223206 0.0273362 0.00949264 
0.0263449 0.0257232 0.0069273 
0.0303489 0.023713 0.00373048 
0.0342931 0.0200202 -0.00214178 
0.0381945 0.0157262 -0.00897003 
-0.0298344 0.00616871 -0.0316367 
-0.0262287 0.0237036 -0.00386353 
-0.0222445 0.0265537 0.000651335 
-0.0182312 0.0286815 0.00402193 
-0.0141975 0.0302372 0.00648651 
-0.0101492 0.0312446 0.00808238 
-0.00609254 0.0318625 0.0090613 
-0.00203193 0.0325277 0.010115 
0.0020325 0.0328752 0.0106655 
0.0060976 0.0328942 0.0106953 
0.0101618 0.0327832 0.0105193 
0.0142214 0.0323293 0.0098 
0.0182682 0.0311991 0.00800943 
0.0222987 0.0295696 0.00542794 
0.0263256 0.028265 0.00336099 
0.0303173 0.0258638 -0.00044298 
0.0342354 0.0213762 -0.00755167 
0.0381484 0.0176608 -0.0134374 
-0.0299915 0.0159794 -0.0235893 
-0.0261806 0.0248671 -0.00956586 
-0.0222119 0.0281786 -0.00434033 
-0.0182047 0.0303228 -0.000956646 
-0.0141803 0.0321866 0.00198455 
-0.0101379 0.0333071 0.00375282 
-0.00608718 0.0342201 0.0051936 
-0.00202994 0.0347608 0.00604678 
0.00203053 0.0351248 0.00662105 
0.00609094 0.0349907 0.00640937 
0.0101516 0.034986 0.00640172 
0.0142052 0.0343645 0.00542066 
0.0182485 0.0333074 0.00375231 
0.0222798 0.0319607 0.00162681 
0.0262925 0.0301494 -0.00123184 
0.0302641 0.0271263 -0.00600255 
0.0341847 0.0229731 -0.0125563 
-0.0258927 0.0146698 -0.0330962 
-0.0221672 0.0291109 -0.0103988 
-0.0181751 0.0317455 -0.00625717 
-0.0141556 0.0334615 -0.00355953 
-0.0101218 0.0347715 -0.00150015 
-0.00607815 0.0358225 0.000151934 
-0.00202744 0.0366804 0.00150048 
0.00202781 0.0369044 0.00185253 
0.00608241 0.0366954 0.00152393 
0.0101371 0.0366639 0.00147403 
0.0141865 0.0361762 0.000707054 
0.0182212 0.0348973 -0.00130374 
0.0222426 0.0333319 -0.00376476 
0.0262468 0.0314276 -0.00675873 
0.0302231 0.0288801 -0.0107637 
0.0341096 0.0236778 -0.0189412 
-0.0221092 0.0292882 -0.0176093 
-0.0181332 0.0323048 -0.0128855 
-0.0141237 0.0340926 -0.0100858 
-0.0100999 0.0355153 -0.00785773 
-0.00606597 0.0367641 -0.00590213 
-0.00202328 0.0375602 -0.00465569 
0.00202421 0.0381372 -0.0037522 
0.00607256 0.0381193 -0.00378044 
0.0101194 0.0379264 -0.00408282 
0.01416 0.0372862 -0.00508574 
0.0181896 0.0361731 -0.00682927 
0.0222035 0.0345797 -0.0093249 
0.0262011 0.0326925 -0.0122806 
0.0301147 0.0278525 -0.0198595 
-0.0179565 0.0235941 -0.0339372 
-0.01408 0.0336624 -0.0182336 
-0.0100709 0.0353676 -0.0155736 
-0.0060499 0.0368918 -0.013196 
-0.00201846 0.0380213 -0.0114343 
0.00201951 0.0386713 -0.0104205 
0.00605897 0.0387622 -0.0102789 
0.0100951 0.038369 -0.0108926 
0.0141278 0.0378842 -0.0116493 
0.0181491 0.0368254 -0.0133015 
0.0221438 0.0346576 -0.0166835 
0.0261091 0.0317468 -0.0212245 
-0.0100268 0.0333246 -0.0261916 
-0.00602577 0.0353349 -0.0230679 
-0.00201058 0.0365711 -0.021147 
0.00201283 0.0379654 -0.0189808 
0.00603973 0.0382212 -0.0185837 
0.010065 0.0380705 -0.0188183 
0.0140876 0.0377572 -0.0193057 
0.0180826 0.0356794 -0.0225347 
-0.0167124 -0.00603761 0.020429 
-0.015454 -0.00201125 0.021187 
-0.0154 0.0020112 0.0212195 
-0.015472 0.00603382 0.0211763 
-0.0159974 0.0100591 0.0208599 
-0.0101504 -0.0140562 0.019694 
-0.00919162 -0.0100352 0.0202736 
-0.00909018 -0.00602077 0.0203349 
-0.00956485 -0.0020074 0.0200477 
-0.0101282 0.00200798 0.0197069 
-0.0106244 0.00602546 0.0194069 
-0.00994192 0.010039 0.0198198 
-0.0092834 0.01405 0.0202184 
-0.0095806 0.0180671 0.0200389 
-0.00338952 -0.0180296 0.0191009 
-0.00264037 -0.0140176 0.0195556 
-0.0037538 -0.0100182 0.0188793 
-0.00416008 -0.00601213 0.0186324 
-0.0050933 -0.00200499 0.0180657 
-0.00600349 0.00200592 0.017513 
-0.00551492 0.00601628 0.0178097 
-0.00467187 0.0100229 0.0183218 
-0.00423441 0.014029 0.0185876 
-0.00240766 0.0180206 0.0196971 
-0.00189484 0.0220197 0.0200089 
-0.00933118 0.0261222 0.0154937 
-0.00717461 -0.0261217 0.0121014 
0.00285607 -0.0219899 0.018216 
0.00511356 -0.0179708 0.019592 
0.00532923 -0.0139756 0.0197233 
0.00179589 -0.0100006 0.0175691 
0.000191833 -0.00600525 0.0165912 
8.62064e-05 -0.00200185 0.0165267 
0.000376581 0.00200156 0.0167037 
0.000689396 0.00600372 0.0168945 
0.000874569 0.0100053 0.0170075 
0.00208012 0.0139989 0.0177426 
0.004676 0.0179748 0.0193253 
0.00624867 0.0219518 0.0202843 
0.00170812 0.0260036 0.0175165 
0.00443603 -0.0259953 0.0144955 
0.00980565 -0.0219354 0.0177816 
0.0122006 -0.0179249 0.0192472 
0.0133733 -0.0139331 0.0199648 
0.011959 -0.00995936 0.0190991 
0.00606401 -0.00599368 0.0154912 
0.0052586 -0.00199871 0.0149982 
0.00511376 0.00199886 0.0149096 
0.00540687 0.0059957 0.015089 
0.00574597 0.00999114 0.0152966 
0.00866796 0.0139668 0.017085 
0.0126322 0.0179209 0.0195114 
0.0131617 0.0218976 0.0198356 
0.0107963 0.0259107 0.0183881 
0.00434218 0.0299965 0.0144384 
-0.00101891 -0.0301112 0.00645005 
0.00949548 -0.025956 0.0129102 
0.0148061 -0.0219026 0.016173 
0.0177966 -0.0178926 0.0180103 
0.0192825 -0.0139057 0.0189232 
0.0197121 -0.00993038 0.0191871 
0.0180676 -0.00596326 0.0181766 
0.0118225 -0.00199414 0.0143395 
0.009948 0.00199606 0.0131878 
0.0192158 0.00595973 0.0188821 
0.0203555 0.00992708 0.0195824 
0.0204371 0.0138974 0.0196326 
0.0198439 0.0178737 0.0192682 
0.0186085 0.0218598 0.0185093 
0.0160762 0.0258683 0.0169535 
0.0110602 0.0299256 0.0138717 
0.00275256 0.0340609 0.0087675 
-0.00458139 -0.0342254 -0.000464636 
0.00277749 -0.0300852 0.00407447 
0.013655 -0.0259285 0.010784 
0.0191638 -0.0218771 0.0141819 
0.0214116 -0.0178785 0.0155684 
0.0233636 -0.0138914 0.0167724 
0.0248251 -0.00991487 0.0176739 
0.0259331 -0.00594549 0.0183573 
0.0264358 -0.00198131 0.0186674 
0.0265702 0.00198117 0.0187503 
0.0265702 0.00594353 0.0187503 
0.0260159 0.00990877 0.0184084 
0.0247989 0.0138811 0.0176578 
0.0236823 0.0178576 0.016969 
0.021959 0.0218456 0.0159061 
0.0192938 0.0258533 0.0142621 
0.0160264 0.0298815 0.0122468 
0.0100024 0.0339712 0.00853107 
0.000276979 -0.0341776 -0.00219233 
0.00859162 -0.0300282 0.00295649 
0.0159635 -0.0259257 0.00752153 
0.0216206 -0.021873 0.0110246 
0.0250326 -0.0178644 0.0131375 
0.026871 -0.0138812 0.014276 
0.0280465 -0.00990904 0.0150039 
0.0291484 -0.00594201 0.0156863 
0.0297108 -0.00198009 0.0160346 
0.0303884 0.00197939 0.0164541 
0.0302402 0.00593864 0.0163623 
0.0290984 0.00990364 0.0156553 
0.0281848 0.0138717 0.0150895 
0.026783 0.0178482 0.0142215 
0.0250229 0.0218346 0.0131315 
0.0223207 0.0258409 0.0114581 
0.0187985 0.029871 0.00927699 
0.0143318 0.0339323 0.00651097 
0.00685045 -0.0340997 -0.00284057 
0.0135888 -0.0299836 0.00134858 
0.0196863 -0.025904 0.00513926 
0.0257448 -0.02185 0.00890574 
0.0277871 -0.0178582 0.0101754 
0.0298985 -0.0138744 0.0114881 
0.031105 -0.00990403 0.0122381 
0.0322131 -0.00593898 0.0129271 
0.0330095 -0.00197884 0.0134222 
0.0330191 0.00197883 0.0134281 
0.0324175 0.00593835 0.0130541 
0.0317925 0.0099005 0.0126655 
0.0309767 0.0138667 0.0121583 
0.0290968 0.0178461 0.0109896 
0.0271963 0.0218336 0.00980802 
0.0245205 0.0258394 0.0081445 
0.0215771 0.0298605 0.00631452 
0.0170693 0.0339212 0.00351209 
0.00530346 0.0381423 -0.00380246 
0.0129671 -0.0340296 -0.00375236 
0.0182991 -0.0299434 -0.000424446 
0.0230159 -0.0258875 0.00251945 
0.0279315 -0.0218489 0.00558738 
0.0299377 -0.0178576 0.00683963 
0.0322278 -0.0138726 0.00826895 
0.0336388 -0.00990171 0.00914968 
0.034708 -0.0059377 0.00981698 
0.0350882 -0.00197884 0.0100543 
0.0354713 0.00197845 0.0102934 
0.034702 0.00593772 0.00981325 
0.0336875 0.00990146 0.00918007 
0.0325003 0.0138707 0.00843904 
0.0313731 0.0178443 0.00773544 
0.0291597 0.021835 0.00635388 
0.0275988 0.0258262 0.00537953 
0.0237431 0.0298594 0.00297304 
0.0191544 0.0339214 0.000109027 
0.010266 0.0380866 -0.00543834 
0.0161193 -0.0340113 -0.006502 
0.0208461 -0.0299364 -0.00354019 
0.0262112 -0.0258727 -0.000178558 
0.0296524 -0.021853 0.00197767 
0.0321342 -0.0178566 0.00353279 
0.0341605 -0.0138737 0.00480248 
0.0355239 -0.00990273 0.00565685 
0.0366443 -0.00593815 0.00635887 
0.0368319 -0.00197919 0.00647643 
0.0369343 0.00197908 0.00654058 
0.0365944 0.00593831 0.00632762 
0.035704 0.0099018 0.00576967 
0.0344693 0.0138715 0.00499595 
0.0332171 0.0178465 0.00421126 
0.0315477 0.0218316 0.00316508 
0.0295991 0.0258274 0.001944 
0.0262017 0.0298537 -0.000184854 
0.021254 0.0339214 -0.00328507 
0.0129132 0.038076 -0.0085111 
0.0174872 -0.0340242 -0.0103688 
0.0236312 -0.0299258 -0.00650412 
0.0282165 -0.0258739 -0.00361974 
0.031459 -0.0218563 -0.00158 
0.0333162 -0.017865 -0.000411627 
0.0354011 -0.0138798 0.000899886 
0.0369626 -0.00990605 0.00188217 
0.0379945 -0.00594041 0.00253133 
0.0383761 -0.00197974 0.00277138 
0.0384629 0.00197965 0.00282599 
0.0377579 0.00594114 0.00238248 
0.037035 0.00990567 0.00192772 
0.0357728 0.0138771 0.0011337 
0.0346646 0.0178525 0.000436407 
0.0327615 0.0218415 -0.000760838 
0.0307006 0.0258406 -0.00205742 
0.0274221 0.0298672 -0.00411987 
0.0228089 0.0339309 -0.00702181 
0.0130678 0.0381143 -0.013149 
0.0178635 -0.0340545 -0.0148655 
0.0249279 -0.0299382 -0.0104046 
0.029088 -0.0258903 -0.00777738 
0.0332185 -0.02186 -0.00516897 
0.0350648 -0.0178681 -0.00400288 
0.0367424 -0.0138852 -0.00294336 
0.0381484 -0.00991068 -0.00205538 
0.0390066 -0.00594373 -0.00151342 
0.0394056 -0.00198083 -0.0012614 
0.0396826 0.00198054 -0.00108653 
0.0395536 0.00594203 -0.00116803 
0.0382667 0.00991007 -0.00198071 
0.0371903 0.013882 -0.00266058 
0.0356277 0.0178629 -0.00364744 
0.0332238 0.0218599 -0.00516562 
0.0310909 0.0258634 -0.00651278 
0.0285323 0.0298824 -0.00812877 
0.0237196 0.0339517 -0.011168 
0.0178147 -0.0340923 -0.0196402 
0.025089 -0.0299683 -0.0150288 
0.0304697 -0.0258998 -0.0116178 
0.034104 -0.0218737 -0.00931367 
0.0362515 -0.0178765 -0.00795207 
0.0377699 -0.0138928 -0.00698929 
0.0387391 -0.00991839 -0.00637473 
0.039782 -0.00594778 -0.00571353 
0.0402738 -0.00198208 -0.0054017 
0.0410458 0.00198128 -0.00491241 
0.0406701 0.00594503 -0.00515061 
0.0397188 0.00991333 -0.00575377 
0.0381814 0.0138899 -0.00672848 
0.0365113 0.0178741 -0.00778742 
0.0345376 0.0218688 -0.00903882 
0.0320494 0.0258786 -0.0106165 
0.0293301 0.0299025 -0.0123407 
0.0236146 0.0339905 -0.0159641 
0.0178854 -0.0341282 -0.0243496 
0.0245036 -0.0300099 -0.0201377 
0.0302553 -0.0259309 -0.0164774 
0.0342274 -0.0218961 -0.0139494 
0.0366438 -0.0178923 -0.0124113 
0.0378602 -0.0139073 -0.011637 
0.039495 -0.00992527 -0.0105965 
0.0407384 -0.00595128 -0.00980508 
0.0409291 -0.00198356 -0.00968363 
0.0408413 0.00198365 -0.00973951 
0.0408048 0.00595108 -0.00976285 
0.0402484 0.00992138 -0.0101171 
0.0391931 0.0138977 -0.0107889 
0.0377556 0.0178819 -0.0117039 
0.0353912 0.0218828 -0.0132089 
0.032817 0.0258965 -0.0148474 
0.0288187 0.029943 -0.0173922 
0.0215904 0.034063 -0.0219922 
0.0229165 -0.0300673 -0.0258999 
0.029463 -0.0259698 -0.0217176 
0.0334354 -0.0219289 -0.0191796 
0.0359538 -0.0179182 -0.0175705 
0.0380577 -0.013921 -0.0162261 
0.0395718 -0.00993568 -0.0152587 
0.0407454 -0.00595774 -0.0145088 
0.040968 -0.00198568 -0.0143665 
0.0410681 0.00198558 -0.0143025 
0.0413003 0.00595602 -0.0141543 
0.0408483 0.00992907 -0.0144433 
0.0399661 0.0139072 -0.0150072 
0.0381382 0.0178978 -0.0161752 
0.0353001 0.0219077 -0.0179886 
0.0318099 0.0259382 -0.0202186 
0.0274017 0.0299976 -0.0230351 
0.0277344 -0.0260214 -0.0275727 
0.031952 -0.0219698 -0.0248676 
0.0354866 -0.0179421 -0.0226006 
0.0376436 -0.0139392 -0.021217 
0.0392138 -0.00994837 -0.0202098 
0.0404671 -0.0059651 -0.0194059 
0.0410316 -0.00198778 -0.0190438 
0.0407804 0.00198804 -0.0192049 
0.0411386 0.00596301 -0.0189754 
0.0407133 0.0099406 -0.0192483 
0.0394099 0.0139264 -0.0200844 
0.037613 0.0179223 -0.0212372 
0.0344978 0.0219407 -0.0232353 
0.0288116 0.0260069 -0.026882 
0.0385484 -0.00996268 -0.0253711 
0.0397597 -0.00597381 -0.0245912 
0.0401936 -0.00199082 -0.0243118 
0.0400343 0.00199098 -0.0244143 
0.0401817 0.0059725 -0.0243195 
0.0397888 0.00995624 -0.0245727 
0.0378413 0.013953 -0.0258267 
0.018012 0.0181251 0.0196468 
0.0179177 0.0140965 0.0197033 
0.0186446 0.0100726 0.0192651 
0.0192485 0.00604536 0.018901 
0.0198 0.00201568 0.0185687 
0.0203287 -0.00201622 0.0182502 
0.0198887 -0.00604732 0.0185153 
0.0188765 -0.0100737 0.0191254 
0.0193009 -0.0141064 0.01887 
0.0128577 0.026141 0.0180577 
0.00957697 0.0220822 0.0200415 
0.0108368 0.0180787 0.0192791 
0.0123163 0.0140716 0.018384 
0.0133149 0.0100562 0.0177797 
0.0147531 0.00603809 0.0169096 
0.016229 0.0020142 0.0160169 
0.0161597 -0.00201413 0.0160588 
0.014342 -0.00603683 0.0171583 
0.0113635 -0.0100462 0.01896 
0.00948629 -0.0140514 0.0200957 
0.0106458 -0.0180769 0.0193946 
0.0128842 0.0301959 0.0133366 
0.00503662 0.0260652 0.0181015 
0.0015523 0.0220158 0.0202169 
0.00302646 0.0180263 0.0193214 
0.00653555 0.0140454 0.0171903 
0.00865517 0.0100432 0.015903 
0.0112557 0.00603386 0.0143237 
0.0128584 0.00201292 0.0133504 
0.011248 -0.00201128 0.0143284 
0.0089336 -0.00602675 0.0157338 
0.0057608 -0.0100284 0.0176606 
0.00295266 -0.0140198 0.0193659 
0.00266288 -0.018023 0.0195422 
0.00507873 -0.0220554 0.0180755 
0.00345699 0.0300838 0.0143681 
-0.00108158 0.026012 0.0171346 
-0.00514963 0.0219641 0.0196143 
-0.0053486 0.0179686 0.0197353 
-0.00334726 0.0139898 0.018515 
-0.00247376 0.00999713 0.0179824 
-0.00144229 0.00600141 0.0173535 
-0.00145255 0.00200046 0.0173597 
-0.000274716 -0.00200166 0.0166416 
-0.000250567 -0.00600507 0.016627 
-0.00402591 -0.00998919 0.0189286 
-0.00508695 -0.0139774 0.0195756 
-0.00431875 -0.0179781 0.0191075 
-0.00187742 -0.0220009 0.0176194 
0.00314034 -0.0260681 0.0145608 
0.00590911 0.0341749 0.00816465 
-0.00241216 0.0300261 0.0132571 
-0.00717048 0.025959 0.0161691 
-0.0104845 0.0219277 0.0181971 
-0.0133295 0.0179145 0.0199382 
-0.0144447 0.0139254 0.0206205 
-0.0147261 0.0099452 0.0207927 
-0.0153064 0.00596532 0.0211477 
-0.0154357 0.0019883 0.0212268 
-0.01536 -0.00198838 0.0211805 
-0.0148055 -0.00596685 0.0208411 
-0.0136807 -0.00995055 0.0201529 
-0.0123607 -0.0139403 0.0193451 
-0.010452 -0.017941 0.0181771 
-0.00722691 -0.0219644 0.0162034 
-0.00334877 -0.0260098 0.0138301 
-0.0013471 0.0340853 0.00790396 
-0.00729907 0.0299834 0.0115608 
-0.0118663 0.0259244 0.0143668 
-0.01477 0.021903 0.0161508 
-0.0169071 0.0179008 0.0174638 
-0.0179925 0.0139149 0.0181306 
-0.0195529 0.00993119 0.0190893 
-0.0205794 0.00595554 0.0197199 
-0.0204201 0.00198534 0.019622 
-0.0202539 -0.00198551 0.0195199 
-0.0194752 -0.00595893 0.0190415 
-0.0182833 -0.0099377 0.0183092 
-0.0163946 -0.0139264 0.0171488 
-0.0140704 -0.0179269 0.0157209 
-0.0111642 -0.0219437 0.0139353 
-0.00799918 -0.0259759 0.0119908 
-0.00276974 -0.030053 0.00877788 
-0.00546947 0.0340502 0.00573502 
-0.0118684 0.0299454 0.00968199 
-0.0154621 0.0259044 0.0118987 
-0.0182932 0.0218869 0.0136449 
-0.0204948 0.017887 0.0150029 
-0.021796 0.0139026 0.0158055 
-0.0225211 0.00992668 0.0162527 
-0.0228317 0.00595503 0.0164443 
-0.0227184 0.00198512 0.0163744 
-0.0230229 -0.00198481 0.0165622 
-0.0224448 -0.00595622 0.0162056 
-0.0209853 -0.00993456 0.0153054 
-0.0193718 -0.01392 0.0143102 
-0.0174212 -0.0179153 0.013107 
-0.0148261 -0.021926 0.0115063 
-0.0109643 -0.0259644 0.00912428 
-0.00648189 -0.0300283 0.00635945 
0.00907926 -0.0343038 -0.00323905 
0.0026644 0.0382566 -0.00401381 
-0.00905855 0.0340244 0.00324558 
-0.0145137 0.029937 0.00662371 
-0.0184648 0.0258923 0.00907042 
-0.0210531 0.0218794 0.0106732 
-0.0230673 0.0178825 0.0119205 
-0.0245099 0.0138982 0.0128139 
-0.0254645 0.00992229 0.0134051 
-0.0256957 0.00595264 0.0135482 
-0.0253477 0.00198457 0.0133328 
-0.0251027 -0.00198482 0.013181 
-0.0249466 -0.00595495 0.0130844 
-0.0249408 -0.00992498 0.0130808 
-0.022783 -0.0139106 0.0117445 
-0.0206789 -0.0179046 0.0104416 
-0.0176732 -0.0219175 0.00858029 
-0.0140499 -0.0259512 0.00633654 
-0.0106466 -0.0299965 0.00422904 
-0.00106187 -0.0341639 -0.00170629 
0.00156641 0.0382765 -0.00807317 
-0.0112396 0.034023 -0.000112034 
-0.0168631 0.0299331 0.00338404 
-0.0204819 0.0258933 0.00563387 
-0.023323 0.0218774 0.00740017 
-0.0254458 0.0178798 0.00871995 
-0.0264814 0.013899 0.00936378 
-0.0278196 0.00992091 0.0101958 
-0.0282768 0.00595111 0.01048 
-0.0280228 0.00198396 0.0103222 
-0.0277605 -0.00198423 0.0101591 
-0.0270552 -0.00595488 0.00972062 
-0.0264793 -0.0099278 0.00936257 
-0.0252222 -0.013908 0.00858101 
-0.0231289 -0.0179013 0.00727964 
-0.0200034 -0.0219149 0.00533651 
-0.0174971 -0.0259332 0.00377834 
-0.0138138 -0.0299801 0.0014884 
-0.00712161 -0.034095 -0.002672 
-0.00112728 0.0382652 -0.0111417 
-0.0131102 0.0340271 -0.00366305 
-0.0184348 0.0299413 -0.000339761 
-0.022122 0.0258994 0.00196162 
-0.024912 0.021883 0.00370299 
-0.0272616 0.0178824 0.00516951 
-0.028723 0.0138979 0.00608169 
-0.0292179 0.00992445 0.00639065 
-0.02998 0.00595229 0.00686635 
-0.0300622 0.00198401 0.00691766 
-0.0299722 -0.0019841 0.00686152 
-0.0295344 -0.00595367 0.00658827 
-0.0283845 -0.00992874 0.00587055 
-0.0269174 -0.0139109 0.00495486 
-0.0253505 -0.0179001 0.00397682 
-0.0229935 -0.0219048 0.00250568 
-0.0197085 -0.0259317 0.000455371 
-0.0156714 -0.0299839 -0.00206435 
-0.0088056 -0.0341024 -0.00634945 
-0.0140206 0.034048 -0.00781681 
-0.0199195 0.0299507 -0.00412074 
-0.0239682 0.0259027 -0.00158385 
-0.0267038 0.0218864 0.000130387 
-0.0287173 0.0178882 0.0013921 
-0.0299291 0.0139042 0.00215146 
-0.0308959 0.00992656 0.00275734 
-0.0314613 0.00595416 0.00311169 
-0.0314301 0.00198475 0.00309217 
-0.0313444 -0.00198484 0.00303846 
-0.0311145 -0.00595523 0.00289442 
-0.03033 -0.00992947 0.0024028 
-0.0290806 -0.0139104 0.00161992 
-0.0271495 -0.0179028 0.000409869 
-0.0246164 -0.0219101 -0.00117744 
-0.0210332 -0.025942 -0.00342259 
-0.0167312 -0.03 -0.00611821 
-0.0089053 -0.0341376 -0.0110216 
-0.0142415 0.0340811 -0.0124102 
-0.0211282 0.0299645 -0.00807833 
-0.0246252 0.025922 -0.00587848 
-0.0277472 0.0218983 -0.00391453 
-0.0297447 0.0178981 -0.0026579 
-0.0312432 0.0139098 -0.00171516 
-0.0321543 0.00993083 -0.00114195 
-0.0324421 0.00595758 -0.000960786 
-0.0326082 0.00198569 -0.000856306 
-0.0327481 -0.00198554 -0.000768291 
-0.0322822 -0.00595808 -0.00106138 
-0.0319405 -0.00993193 -0.0012764 
-0.0306813 -0.0139139 -0.00206859 
-0.0287566 -0.0179073 -0.00327933 
-0.0255708 -0.021923 -0.00528335 
-0.0221303 -0.0259555 -0.00744764 
-0.0171349 -0.0300263 -0.0105899 
-0.00923409 -0.0341688 -0.0155596 
-0.012718 0.0341448 -0.0181143 
-0.0214086 0.0299927 -0.0126265 
-0.0252449 0.0259418 -0.0102038 
-0.0284019 0.0219147 -0.0082101 
-0.0304247 0.0179112 -0.00693254 
-0.0322597 0.0139176 -0.00577364 
-0.0328773 0.00993788 -0.00538345 
-0.0335545 0.00596061 -0.00495577 
-0.0335239 0.0019869 -0.00497497 
-0.0334006 -0.00198702 -0.00505281 
-0.0331401 -0.00596189 -0.00521741 
-0.032709 -0.00993875 -0.00548976 
-0.0316989 -0.0139216 -0.00612772 
-0.0294247 -0.0179205 -0.00756392 
-0.0265755 -0.0219354 -0.00936322 
-0.0228416 -0.0259741 -0.0117212 
-0.0163837 -0.0300705 -0.0157992 
-0.00908854 -0.0342085 -0.0204058 
-0.0212479 0.0300278 -0.0174634 
-0.0254031 0.0259679 -0.0148291 
-0.0286996 0.0219351 -0.0127391 
-0.030662 0.0179285 -0.0114948 
-0.0326009 0.0139302 -0.0102656 
-0.0337098 0.00994437 -0.00956243 
-0.0342028 0.00596507 -0.00924973 
-0.0340284 0.00198853 -0.00936017 
-0.0338195 -0.00198875 -0.0094926 
-0.0335127 -0.00596721 -0.00968712 
-0.0328905 -0.00994861 -0.0100817 
-0.0319198 -0.0139352 -0.0106972 
-0.0298979 -0.0179356 -0.0119792 
-0.0271281 -0.021953 -0.0137352 
-0.0226814 -0.0260045 -0.0165541 
-0.0162835 -0.0301047 -0.0206099 
-0.0198142 0.0300827 -0.0231215 
-0.0245973 0.026007 -0.0200774 
-0.0283893 0.0219625 -0.017664 
-0.0302962 0.0179514 -0.0164502 
-0.0319974 0.0139497 -0.0153673 
-0.0337729 0.00995486 -0.0142372 
-0.0341561 0.0059717 -0.0139932 
-0.0340774 0.00199065 -0.0140432 
-0.0341117 -0.00199061 -0.0140213 
-0.033539 -0.00597362 -0.0143859 
-0.0327407 -0.0099602 -0.014894 
-0.0321953 -0.0139483 -0.0152413 
-0.0302908 -0.0179514 -0.0164536 
-0.0271729 -0.0219763 -0.0184379 
-0.0230535 -0.0260277 -0.0210597 
-0.0145719 -0.030164 -0.0264571 
-0.022709 0.0260607 -0.0260316 
-0.027301 0.0219988 -0.0230978 
-0.029811 0.0179754 -0.021494 
-0.0315747 0.013968 -0.020367 
-0.0331684 0.00996883 -0.0193487 
-0.0340008 0.00597869 -0.0188167 
-0.0340652 0.00199283 -0.0187755 
-0.0339762 -0.00199292 -0.0188324 
-0.0333289 -0.00598078 -0.0192459 
-0.0325316 -0.00997213 -0.0197554 
-0.0316838 -0.0139672 -0.0202973 
-0.0297207 -0.0179763 -0.0215516 
-0.0257702 -0.0220162 -0.0240756 
-0.0198419 -0.0260993 -0.0278629 
-0.0242838 0.0220572 -0.0297844 
-0.0279856 0.0180121 -0.0274101 
-0.029907 0.0139953 -0.0261776 
-0.0318712 0.00998642 -0.0249177 
-0.0329949 0.00598833 -0.024197 
-0.0330823 0.00199602 -0.0241408 
-0.0331925 -0.0019959 -0.0240702 
-0.0327479 -0.0059891 -0.0243554 
-0.0316335 -0.00998766 -0.0250702 
-0.0305397 -0.0139907 -0.0257719 
-0.0279258 -0.0180126 -0.0274485 
-0.0291773 0.0100113 -0.0314029 
-0.0304674 0.00600274 -0.0305722 
-0.0309952 0.00200036 -0.0302323 
-0.0310333 -0.00200032 -0.0302078 
-0.0303471 -0.00600311 -0.0306496 
-0.0201988 0.0100142 0.018126 
-0.0227987 0.00600042 0.0164779 
-0.0223082 0.00200064 0.0167887 
-0.0235768 -0.00199933 0.0159846 
-0.0196668 -0.00601012 0.018463 
-0.0232411 0.0179779 0.0114681 
-0.0264698 0.0139594 0.00942929 
-0.02818 0.00996212 0.00834926 
-0.0298048 0.00597221 0.00732322 
-0.0299397 0.00199059 0.00723796 
-0.0296778 -0.00199087 0.00740331 
-0.0285549 -0.00597608 0.00811241 
-0.026372 -0.00997145 0.00949076 
-0.0230375 -0.0139842 0.0115963 
-0.0170669 0.0260233 0.0106322 
-0.0237633 0.0219435 0.00642018 
-0.0279047 0.0179152 0.00381514 
-0.0297942 0.0139203 0.0026265 
-0.031274 0.00993537 0.00169563 
-0.0319607 0.00595907 0.0012636 
-0.032085 0.00198623 0.00118537 
-0.0322786 -0.00198603 0.00106356 
-0.0317733 -0.00595965 0.00138148 
-0.030477 -0.00993948 0.00219689 
-0.027587 -0.0139362 0.00401472 
-0.0235913 -0.0179552 0.00652804 
-0.0120108 0.0300729 0.00907557 
-0.0215147 0.0259356 0.00312097 
-0.0268526 0.0218848 -0.000223571 
-0.0296248 0.0178798 -0.00196066 
-0.0314418 0.0138933 -0.00309919 
-0.0327711 0.0099169 -0.0039322 
-0.0334288 0.00594808 -0.00434435 
-0.0335007 0.00198262 -0.00438941 
-0.0333204 -0.0019828 -0.00427646 
-0.033162 -0.00594891 -0.00417719 
-0.0323373 -0.00991914 -0.00366041 
-0.0308977 -0.0138973 -0.00275832 
-0.0281119 -0.0178939 -0.00101279 
-0.0231157 -0.0219271 0.00211762 
-0.00968831 -0.0260939 0.0105303 
-0.0179982 0.029948 0.000612219 
-0.0244337 0.0258685 -0.00340429 
-0.0282053 0.0218458 -0.00575825 
-0.0305044 0.0178524 -0.00719327 
-0.0327357 0.013869 -0.00858591 
-0.0335262 0.00990229 -0.00907941 
-0.0342406 0.00593915 -0.00952528 
-0.0340313 0.00197993 -0.00939473 
-0.0338009 -0.00198016 -0.0092509 
-0.0334281 -0.00594165 -0.00901822 
-0.032859 -0.00990572 -0.00866298 
-0.0319309 -0.0138748 -0.00808365 
-0.0293239 -0.0178633 -0.00645655 
-0.0253962 -0.0218776 -0.00400519 
-0.0204899 -0.0259212 -0.000943014 
-0.0111499 0.0340246 0.000167793 
-0.020602 0.0298755 -0.00570834 
-0.0251026 0.0258316 -0.00850635 
-0.0285693 0.0218181 -0.0106616 
-0.0306686 0.0178315 -0.0119667 
-0.0320319 0.0138591 -0.0128143 
-0.0337971 0.0098902 -0.0139117 
-0.0341578 0.00593298 -0.014136 
-0.0340775 0.00197774 -0.0140861 
-0.0341144 -0.0019777 -0.0141091 
-0.033548 -0.00593486 -0.0137569 
-0.0329381 -0.00989462 -0.0133777 
-0.0320983 -0.0138586 -0.0128556 
-0.0298529 -0.0178391 -0.0114597 
-0.0266428 -0.0218398 -0.00946395 
-0.0219527 -0.0258737 -0.00654817 
-0.016095 -0.029945 -0.00290658 
-0.0140138 0.0339379 -0.00631405 
-0.0213901 0.0298311 -0.0108819 
-0.0256307 0.0257967 -0.0135078 
-0.0286899 0.0217932 -0.0154023 
-0.0303752 0.017815 -0.0164459 
-0.0319437 0.0138447 -0.0174172 
-0.0333104 0.00988203 -0.0182635 
-0.0340187 0.00592701 -0.0187022 
-0.0340664 0.00197562 -0.0187317 
-0.0339761 -0.00197571 -0.0186758 
-0.0334032 -0.00592891 -0.018321 
-0.0326817 -0.00988525 -0.0178743 
-0.0321241 -0.0138434 -0.0175289 
-0.0303792 -0.017815 -0.0164484 
-0.027314 -0.0218087 -0.0145502 
-0.022993 -0.0258319 -0.0118745 
-0.017181 -0.0298959 -0.00827536 
-0.00664196 -0.0340665 -0.00174913 
-0.0147767 0.033888 -0.011476 
-0.0215574 0.0297964 -0.0156585 
-0.0251163 0.0257757 -0.0178536 
-0.028158 0.0217757 -0.0197298 
-0.0299233 0.0178 -0.0208187 
-0.0313988 0.0138337 -0.0217288 
-0.0326735 0.00987464 -0.022515 
-0.0334066 0.0059225 -0.0229672 
-0.0334504 0.00197412 -0.0229942 
-0.0334512 -0.00197412 -0.0229947 
-0.0330135 -0.00592371 -0.0227247 
-0.0321579 -0.00987728 -0.022197 
-0.0314515 -0.0138333 -0.0217612 
-0.0299872 -0.0177994 -0.0208581 
-0.0273029 -0.0217853 -0.0192023 
-0.0228863 -0.0258055 -0.0164781 
-0.0170144 -0.0298663 -0.0128562 
-0.00949984 -0.03398 -0.00822107 
0.00234512 0.0381679 -0.00563557 
-0.0144602 0.033857 -0.0159609 
-0.0212461 0.0297691 -0.0201301 
-0.0243489 0.0257582 -0.0220364 
-0.0272169 0.0217628 -0.0237985 
-0.0290178 0.0177892 -0.0249049 
-0.0301532 0.0138278 -0.0256024 
-0.0314759 0.00987014 -0.026415 
-0.0320338 0.00592034 -0.0267578 
-0.0322365 0.00197324 -0.0268823 
-0.0323414 -0.00197313 -0.0269467 
-0.0321243 -0.00592006 -0.0268134 
-0.0313141 -0.00987096 -0.0263156 
-0.0305557 -0.0138249 -0.0258497 
-0.028966 -0.0177896 -0.024873 
-0.0263782 -0.0217723 -0.0232831 
-0.0233325 -0.0257717 -0.0214119 
-0.0167385 -0.0298383 -0.0173606 
-0.00943115 -0.0339446 -0.012871 
-0.00135938 0.0380548 -0.0126134 
-0.0129296 0.0338472 -0.0196943 
-0.0198874 0.0297579 -0.0239523 
-0.0230483 0.0257478 -0.0258866 
-0.0257823 0.0217555 -0.0275597 
-0.0275762 0.0177833 -0.0286574 
-0.0287796 0.0138227 -0.0293937 
-0.0299354 0.0098674 -0.030101 
-0.0305347 0.00591857 -0.0304678 
-0.0307929 0.00197259 -0.0306257 
0.0352964 -0.00204021 0.00982226 
-0.0304815 -0.00591874 -0.0304352 
-0.0297535 -0.00986833 -0.0299897 
-0.0289434 -0.0138215 -0.029494 
-0.0274895 -0.0177841 -0.0286043 
-0.0250264 -0.021764 -0.0270971 
-0.0218121 -0.0257642 -0.02513 
-0.0164301 -0.029811 -0.0218364 
-0.0100965 -0.0338965 -0.0179604 
0.000477373 0.0380496 -0.0161854 
-0.0111171 0.0338423 -0.0232532 
-0.0174022 0.029764 -0.0270843 
-0.0211715 0.025745 -0.0293818 
-0.0237067 0.0217555 -0.0309271 
-0.0253848 0.0177843 -0.0319498 
-0.0266911 0.0138228 -0.032746 
0.0357598 0.0101925 0.00532567 
0.0365957 0.00611804 0.00583541 
0.0371269 0.00203989 0.00615924 
0.0369923 -0.00203975 0.00607719 
0.0367615 -0.00611855 0.00593647 
0.0355868 -0.0101916 0.00522021 
0.0340927 -0.0142577 0.00430926 
0.0319707 -0.0183119 0.00301544 
0.0293232 -0.0223517 0.0014012 
-0.0199091 -0.0257618 -0.0286123 
-0.0153222 -0.0297959 -0.0258163 
-0.0104255 -0.0338543 -0.0228316 
0.00276053 0.0380531 -0.0194851 
-0.00839794 0.0338532 -0.0262603 
-0.0146054 0.0297749 -0.0300291 
-0.0182739 0.0257559 -0.0322563 
-0.0205736 0.0217673 -0.0336524 
0.0347078 0.0183174 -8.34881e-05 
0.0358359 0.0142548 0.000601827 
0.0370231 0.010188 0.0013229 
0.0379887 0.00611574 0.00190942 
0.0386042 0.0020392 0.00228319 
0.038521 -0.00203912 0.00223267 
0.0381132 -0.00611612 0.00198498 
0.0370582 -0.0101882 0.00134422 
0.0354561 -0.0142521 0.000371199 
0.0332749 -0.0183042 -0.000953546 
0.0313406 -0.0223504 -0.00212847 
0.0277107 -0.0263662 -0.00433304 
-0.0133986 -0.0297934 -0.0292964 
-0.00786734 -0.0338624 -0.0259381 
-0.00483527 0.0338786 -0.0287603 
-0.0110889 0.0297968 -0.0325422 
-0.014135 0.0257831 -0.034384 
0.0329289 0.0223442 -0.00591719 
0.0355643 0.0183056 -0.00432279 
0.0371644 0.014249 -0.00335465 
0.0384407 0.0101843 -0.00258248 
0.039772 0.00611464 -0.00177706 
0.0399196 0.00203836 -0.00168772 
0.0396073 -0.00203804 -0.00187663 
0.0391432 -0.00611271 -0.00215743 
0.0382161 -0.0101832 -0.0027183 
0.0367373 -0.014246 -0.003613 
0.0350333 -0.0183007 -0.00464396 
0.0329583 -0.0223445 -0.00589944 
0.0288321 -0.0263528 -0.0083956 
0.0244345 -0.0303402 -0.011056 
-0.00429548 -0.033888 -0.0284338 
-0.000961844 0.0339094 -0.0310803 
-0.00608391 0.0298413 -0.0341654 
0.031798 0.0263638 -0.0113423 
0.0343115 0.0223358 -0.00982745 
0.0366038 0.0182955 -0.00844591 
0.0382801 0.0142417 -0.00743568 
0.039858 0.0101806 -0.00648476 
0.0407587 0.0061111 -0.0059419 
0.0410751 0.00203735 -0.0057512 
0.0402969 -0.00203656 -0.00622002 
0.0399325 -0.00610858 -0.00643966 
0.0387213 -0.0101748 -0.00716958 
0.0378397 -0.0142386 -0.00770098 
0.036287 -0.0182926 -0.00863682 
0.0337329 -0.0223293 -0.010176 
0.0300191 -0.0263403 -0.012414 
0.0244017 -0.0303072 -0.0157989 
0.00103028 -0.0339439 -0.0298801 
0.00509924 0.033978 -0.0320961 
0.0283664 0.0303353 -0.0181329 
0.0324957 0.0263448 -0.0156542 
0.0351672 0.0223214 -0.0140504 
0.0376453 0.0182855 -0.0125628 
0.0392524 0.0142334 -0.011598 
0.040316 0.0101721 -0.0109594 
0.0408022 0.0061047 -0.0106674 
0.0408044 0.0020349 -0.010666 
0.0410304 -0.00203513 -0.0105304 
0.0408316 -0.00610478 -0.0106498 
0.0395689 -0.0101683 -0.0114078 
0.0376922 -0.0142223 -0.0125343 
0.0364294 -0.0182744 -0.0132925 
0.033924 -0.0223075 -0.0147965 
0.0299292 -0.0263109 -0.0171944 
0.0239788 -0.0302683 -0.0207658 
0.00816017 -0.034031 -0.0302593 
0.0267829 0.0302787 -0.0237921 
0.0312542 0.0263003 -0.0211187 
0.034941 0.022295 -0.0189143 
0.0378311 0.0182677 -0.0171862 
0.0398737 0.0142226 -0.0159648 
0.0408538 0.0101639 -0.0153786 
0.0413806 0.00609993 -0.0150635 
